100.0	 131.36438392073	 12.938262523501999
100.0	 131.42522757403287	 26.142103150161184
100.0	 132.05776633104483	 40.0592854611158
100.0	 133.9625322141366	 55.48909769293802
100.0	 128.76050459485984	 68.82392357659566
100.0	 125.55191145768433	 83.89110518595993
100.0	 120.58963072458697	 98.9653523295287
100.0	 111.72287142747452	 111.7228714274745
100.0	 92.62141948789225	 112.85952619095958
100.0	 76.11312192368551	 113.91133688544868
100.0	 60.810179050553714	 113.76784310093778
100.0	 48.9834793427315	 118.2565801614447
100.0	 35.70501530229886	 117.70366129506169
100.0	 23.02065799790314	 115.73266308758119
100.0	 11.46800541855861	 116.43661302064703
100.0	 6.980486755139913e-15	 114.0
100.0	 -11.369988278229037	 115.44142829397484
100.0	 -23.020657997903125	 115.73266308758119
100.0	 -35.705015302298854	 117.70366129506169
100.0	 -48.600795910366394	 117.33270062893341
100.0	 -63.16716273468369	 118.17744942267957
100.0	 -74.44641122462666	 111.4169280485411
100.0	 -90.71823963540128	 110.54049483087141
100.0	 -113.1370849898476	 113.13708498984761
100.0	 -136.82285024520445	 112.28761129696525
100.0	 -168.7883312974167	 112.78075730297924
100.0	 -199.3142057427282	 106.53566252267551
100.0	 -214.3400515426185	 88.78255630870085
100.0	 -219.13933688267582	 66.47519109127187
100.0	 -217.73433224951717	 43.310051487580544
100.0	 -220.9310093212277	 21.759805153162507
100.0	 -220.0	 2.694222958124177e-14
100.0	 -219.93582459455553	 -21.66178801283289
100.0	 -222.6382586515333	 -44.285503097661135
100.0	 -223.92403856133689	 -67.92661447754415
100.0	 -220.80720827019752	 -91.46134033525644
100.0	 -221.36223735143713	 -118.32058094332541
100.0	 -209.53034230024144	 -140.0036987209397
100.0	 -187.06852971378237	 -153.52317476760214
100.0	 -151.3208511739212	 -151.32085117392117
100.0	 -119.26593742276543	 -145.3259652321945
100.0	 -95.55808007937158	 -143.0127733160378
100.0	 -75.89487462898566	 -141.98932356008515
100.0	 -58.55056515185882	 -141.35356847422685
100.0	 -42.962132233660434	 -141.6271696883669
100.0	 -28.483187014354787	 -143.19465093887163
100.0	 -14.114468207456705	 -143.30660064079635
100.0	 -2.6268673841710724e-14	 -143.0
100.0	 13.918433926797533	 -141.31623118745196
100.0	 28.2880966923386	 -142.21386565846842
100.0	 43.25241691091485	 -142.58411002409912
100.0	 59.31593201658895	 -143.20132753924943
100.0	 76.36627136581161	 -142.87124482443352
100.0	 96.66922054541072	 -144.67571254064293
100.0	 113.55639786529257	 -138.3688711519299
100.0	 125.1579002700189	 -125.15790027001894
100.0	 127.54672480485155	 -104.67489188700158
100.0	 125.55191145768433	 -83.89110518595993
100.0	 124.35089827311805	 -66.4669398924657
100.0	 125.64761642153496	 -52.044946801652294
100.0	 130.1438856595804	 -39.47871610660689
100.0	 129.4636570132264	 -25.75192250612899
100.0	 126.38846028736901	 -12.448176821854187
100.0	 129.0	 -3.159588741800171e-14
200.0	 135.34512282741878	 13.330331084820163
200.0	 138.2907245368555	 27.50773540427408
200.0	 136.84246800970587	 41.510708847388074
200.0	 135.81029127915915	 56.25446455766822
200.0	 130.52434712355654	 69.76671705024764
200.0	 130.54072913149966	 87.2245265840775
200.0	 126.00070389812612	 103.40610531867424
200.0	 116.67261889578037	 116.67261889578032
200.0	 101.50292546618337	 123.68167253803784
200.0	 79.44654332180313	 118.90015455926395
200.0	 63.167162734683735	 118.17744942267954
200.0	 48.60079591036649	 117.33270062893338
200.0	 37.44672336582567	 123.44530330945494
200.0	 23.60592896395158	 118.67501892879086
200.0	 11.468005418558587	 116.43661302064704
200.0	 3.612708057484692e-14	 118.0
200.0	 -11.468005418558516	 116.43661302064704
200.0	 -23.020657997903022	 115.73266308758122
200.0	 -35.124445947789994	 115.78978062359725
200.0	 -48.9834793427315	 118.2565801614447
200.0	 -61.75297252420566	 115.53168562963452
200.0	 -73.33527075858743	 109.75398882393601
200.0	 -88.81505978291028	 108.22146347078326
200.0	 -106.77312395916854	 106.7731239591688
200.0	 -126.00070389812615	 103.40610531867418
200.0	 -157.97922633748357	 105.55834427372443
200.0	 -194.90459942098641	 104.17867883854558
200.0	 -215.26393107512973	 89.16523974106609
200.0	 -222.9670982256046	 67.63632980029
200.0	 -221.6574733711301	 44.09041277564492
200.0	 -220.93100932122772	 21.75980515316246
200.0	 -217.0	 7.972450662449268e-14
200.0	 -214.95990096119453	 -21.17170231118494
200.0	 -213.8111911279043	 -42.52969019951574
200.0	 -213.39769486828254	 -64.73348302774518
200.0	 -210.64453341257337	 -87.25182257924048
200.0	 -209.89726091490851	 -112.19242336458737
200.0	 -202.8785854018211	 -135.55913685678283
200.0	 -184.74949835369426	 -151.6199949151111
200.0	 -151.3208511739211	 -151.32085117392126
200.0	 -121.16911727525627	 -147.64499659228278
200.0	 -96.66922054541082	 -144.67571254064285
200.0	 -75.8948746289857	 -141.98932356008513
200.0	 -59.31593201658904	 -143.2013275392494
200.0	 -42.38156287915168	 -139.71328901690245
200.0	 -27.897916048306307	 -140.25229509766197
200.0	 -13.820416786468058	 -140.32104646077977
200.0	 -6.300807781613132e-14	 -147.0
200.0	 14.114468207456618	 -143.30660064079635
200.0	 28.093006370322314	 -141.2330803780652
200.0	 41.80099352464262	 -137.79940834543808
200.0	 56.637147990033284	 -136.73417081167042
200.0	 72.12370073437759	 -134.93395344529833
200.0	 88.89123728313626	 -133.0351379684073
200.0	 111.65321801280147	 -136.04983979184183
200.0	 128.69343417595147	 -128.6934341759518
200.0	 138.36887115192994	 -113.55639786529252
200.0	 140.51836447913013	 -93.89136938031281
200.0	 135.81587470964664	 -72.59509747120373
200.0	 138.58192987669295	 -57.402514854763595
200.0	 133.9716470025092	 -40.6398548156249
200.0	 139.27150981725873	 -27.702825726290193
200.0	 138.33067700743536	 -13.624382505808946
200.0	 138.0	 -6.76005033129339e-14
300.0	 147.28733954748515	 14.506536768774849
300.0	 142.21386565846845	 28.28809669233843
300.0	 140.6702293526347	 42.671847556406
300.0	 140.4296889417156	 58.167881719493636
300.0	 141.10740229573682	 75.42347789215957
300.0	 141.34983409143274	 94.44693961333228
300.0	 135.2768293384791	 111.01882472863782
300.0	 123.74368670764576	 123.74368670764586
300.0	 104.04049860283786	 126.77371435148886
300.0	 82.77996471992077	 123.8889722330792
300.0	 65.99554315563975	 123.46897700876966
300.0	 50.13152963982688	 121.02821875897853
300.0	 38.89814675209812	 128.23000498811595
300.0	 24.58138057403215	 123.57894533080703
300.0	 11.86007397987686	 120.41735192733582
300.0	 6.557983609434076e-14	 119.0
300.0	 -11.664039699217605	 118.42698247399143
300.0	 -23.605928963951374	 118.6750189287909
300.0	 -35.7050153022989	 117.70366129506168
300.0	 -48.98347934273148	 118.2565801614447
300.0	 -62.22436926103164	 116.4136068939829
300.0	 -73.890840991607	 110.58545843623858
300.0	 -88.1806664987466	 107.44845301742053
300.0	 -106.06601717798198	 106.06601717798229
300.0	 -125.22769344476337	 102.77171203451059
300.0	 -157.147756725181	 105.00277404070489
300.0	 -187.84922930619956	 100.40750494393762
300.0	 -207.87289481503942	 86.10377228214541
300.0	 -215.3115755397469	 65.31405238225432
300.0	 -212.830405847501	 42.33459987749982
300.0	 -208.98879260116132	 20.583599469207783
300.0	 -210.0	 1.2858791391047208e-13
300.0	 -204.01286896780036	 -20.09351376755973
300.0	 -204.003338323872	 -40.57878697935442
300.0	 -201.91441083949618	 -61.25006690069124
300.0	 -198.63409948992683	 -82.2769379584939
300.0	 -195.78652068533506	 -104.65007557537103
300.0	 -192.06948044188783	 -128.3367238275283
300.0	 -180.11143563351763	 -147.8136352101295
300.0	 -155.56349186104043	 -155.5634918610405
300.0	 -123.7066904119109	 -150.7370384057337
300.0	 -97.22479077843046	 -145.50718215294538
300.0	 -76.36627136581173	 -142.87124482443346
300.0	 -58.93324858422398	 -142.2774480067381
300.0	 -42.67184755640616	 -140.67022935263464
300.0	 -27.507735404274328	 -138.29072453685544
300.0	 -14.212485347786593	 -144.3017853674685
300.0	 -3.454376736293125e-13	 -141.0
300.0	 13.82041678646815	 -140.32104646077974
300.0	 27.702825726290275	 -139.2715098172587
300.0	 41.80099352464259	 -137.79940834543808
300.0	 53.95836396347763	 -130.26701408409144
300.0	 68.35252683976958	 -127.87858333051152
300.0	 83.89110518595983	 -125.55191145768441
300.0	 102.13731875034676	 -124.45468299140079
300.0	 123.74368670764561	 -123.74368670764602
300.0	 143.77994432546885	 -117.99715085443835
300.0	 157.1477567251808	 -105.00277404070519
300.0	 156.98198505400728	 -83.90861915502744
300.0	 154.28788192938492	 -63.90813320496989
300.0	 150.2396327099568	 -45.57469432895055
300.0	 148.0985773408878	 -29.458638624435373
300.0	 146.29215482081293	 -14.408519628445466
300.0	 149.0	 -1.0948342384377337e-13
400.0	 153.25844790751833	 15.094639610752168
400.0	 153.98328902330724	 30.62918055653192
400.0	 154.0673940528857	 46.73583303796818
400.0	 154.287881929385	 63.90813320496967
400.0	 156.10006378965903	 83.43722241820122
400.0	 152.1589390513657	 101.66935264258733
400.0	 141.4609129653808	 116.09397100194718
400.0	 122.32947314527271	 122.32947314527273
400.0	 97.69656576120144	 119.04360981786148
400.0	 79.44654332180318	 118.90015455926392
400.0	 62.69576599785779	 117.29552815833117
400.0	 51.662263369287274	 124.72373688902366
400.0	 37.44672336582583	 123.44530330945489
400.0	 24.581380574032398	 123.57894533080699
400.0	 12.15412540086579	 123.4029061073524
400.0	 -1.1960104323444543e-13	 122.0
400.0	 -12.056108260536032	 122.40772138068021
400.0	 -24.38629025201607	 122.5981600504038
400.0	 -36.866154011316716	 121.53142263799052
400.0	 -51.662263369287075	 124.72373688902373
400.0	 -63.1671627346836	 118.17744942267962
400.0	 -78.3354028557638	 117.23721533465896
400.0	 -95.15899262454667	 115.95156800441066
400.0	 -118.08683245815324	 118.08683245815365
400.0	 -143.0069338721061	 117.36275757027472
400.0	 -171.28274013432406	 114.44746800203848
400.0	 -187.8492293061997	 100.40750494393734
400.0	 -195.86246089239285	 81.12888766139893
400.0	 -196.17276882510282	 59.50835883716476
400.0	 -195.17627080024286	 38.82297408120956
400.0	 -196.05139115442276	 19.30937664492354
400.0	 -195.0	 1.671642880836137e-13
400.0	 -194.06102170107843	 -19.113342364264085
400.0	 -194.19548551983968	 -38.627883759193104
400.0	 -194.2588881536385	 -58.927789482655506
400.0	 -192.16694276234782	 -79.59815393193826
400.0	 -193.14075689229003	 -103.235885364893
400.0	 -186.24919315577006	 -124.44773219639102
400.0	 -173.15434155325303	 -142.10409565265664
400.0	 -146.37110370561533	 -146.37110370561535
400.0	 -114.19079114945623	 -139.1418816052926
400.0	 -92.78022891427365	 -138.855425254525
400.0	 -72.59509747120379	 -135.81587470964658
400.0	 -55.4890976929382	 -133.9625322141365
400.0	 -40.63985481562496	 -133.97164700250917
400.0	 -27.897916048306627	 -140.25229509766191
400.0	 -13.820416786468376	 -140.32104646077974
400.0	 -3.7458302948774637e-13	 -139.0
400.0	 13.624382505808995	 -138.33067700743536
400.0	 27.897916048306367	 -140.25229509766194
400.0	 41.80099352464256	 -137.79940834543808
400.0	 55.106414260572855	 -133.0386526816253
400.0	 70.70951052389954	 -132.2881896522533
400.0	 88.3356670501166	 -132.2036683561048
400.0	 108.4812515919832	 -132.18478752502818
400.0	 132.22896808188412	 -132.22896808188463
400.0	 149.96402795237069	 -123.07229712774755
400.0	 155.4848175005757	 -103.891633574666
400.0	 156.1000637896589	 -83.43722241820147
400.0	 154.2878819293849	 -63.908133204969936
400.0	 153.1104537171534	 -46.44554836071397
400.0	 152.02171846250073	 -30.238999912499924
400.0	 152.2632631808461	 -14.99662247042287
400.0	 150.0	 -1.4695761589768238e-13
500.0	 161.21992572089593	 15.878776733388603
500.0	 158.88721542532338	 31.60463216661252
500.0	 161.7229167387434	 49.05811045600382
500.0	 157.0595205269189	 65.0561835020649
500.0	 158.74582758270412	 84.85141262867914
500.0	 156.31628711287846	 104.4472038076853
500.0	 149.96402795237094	 123.07229712774726
500.0	 133.6431816442575	 133.64318164425748
500.0	 111.65321801280166	 136.04983979184166
500.0	 87.78009681709725	 131.37219874380207
500.0	 68.8239235765958	 128.76050459485975
500.0	 52.42763023401749	 126.57149595404621
500.0	 39.769000783861586	 131.10082599531256
500.0	 25.94701282814534	 130.44444229362958
500.0	 12.546193962184073	 127.38364501404116
500.0	 -9.339669663587503e-14	 127.0
500.0	 -12.154125400865563	 123.40290610735241
500.0	 -24.971561218064423	 125.5405158916135
500.0	 -38.027292720334536	 125.35918398091937
500.0	 -51.66226336928704	 124.72373688902374
500.0	 -65.52414641881356	 122.58705574442142
500.0	 -77.22426238972456	 115.57427611005389
500.0	 -91.98702620372842	 112.08651573759701
500.0	 -113.13708498984738	 113.13708498984782
500.0	 -135.27682933847873	 111.01882472863826
500.0	 -163.79951362360111	 109.44733590486207
500.0	 -184.32154424880625	 98.5219179966334
500.0	 -194.01470182737023	 80.36352079666881
500.0	 -193.30194781790618	 58.63750480540141
500.0	 -194.1954855198396	 38.62788375919348
500.0	 -189.08509806771738	 18.623256662616658
500.0	 -187.0	 2.0610805629649956e-13
500.0	 -181.12362025433987	 -17.83911953997977
500.0	 -182.42606215500092	 -36.28679989499953
500.0	 -179.90478311765537	 -54.57351932383854
500.0	 -181.08038837221238	 -75.00595274355715
500.0	 -177.26617413401962	 -94.75074410202504
500.0	 -173.7771489712319	 -116.11417870109695
500.0	 -163.87821611290022	 -134.49137624269287
500.0	 -144.95689014324228	 -144.95689014324222
500.0	 -116.72836428611085	 -142.23392341874356
500.0	 -92.78022891427369	 -138.85542525452496
500.0	 -73.06649420802981	 -136.69779597399494
500.0	 -56.637147990033505	 -136.73417081167037
500.0	 -40.349570138370524	 -133.01470666677696
500.0	 -27.31264508225827	 -137.3099392564522
500.0	 -13.526365365479721	 -137.33549228076313
500.0	 -4.0274866790686235e-13	 -137.0
500.0	 13.23231394449072	 -134.34993810074658
500.0	 26.727374116209564	 -134.36758341524256
500.0	 40.63985481562468	 -133.97164700250926
500.0	 52.04494680165212	 -125.64761642153505
500.0	 67.40973336611752	 -126.11474080181485
500.0	 82.77996471992056	 -123.88897223307936
500.0	 99.59974561369214	 -121.36264117794987
500.0	 120.91525958289937	 -120.91525958289988
500.0	 146.098975685557	 -119.90033070692935
500.0	 163.79951362360111	 -109.44733590486209
500.0	 173.738489076626	 -92.86515715472146
500.0	 175.53711117714448	 -72.70985214936704
500.0	 169.37843942460097	 -51.38038787403987
500.0	 166.73349766854915	 -33.1653547427419
500.0	 164.20547990091248	 -16.172828154377644
500.0	 162.0	 -1.9839278146187122e-13
600.0	 174.1573271676345	 17.152999557672835
600.0	 174.5797799117751	 34.7260773188705
600.0	 173.2062007675299	 52.5415265830573
600.0	 173.6893521121221	 71.94448528463643
600.0	 173.7384890766262	 92.86515715472103
600.0	 167.9568616851145	 112.2251870699591
600.0	 156.14811157927286	 128.1474434010564
600.0	 130.8147545195118	 130.81475451951079
600.0	 107.84685830781983	 131.4117770716652
600.0	 86.11338611803895	 128.87778990689412
600.0	 68.35252683976984	 127.87858333051139
600.0	 52.044946801651975	 125.64761642153509
600.0	 40.349570138370545	 133.01470666677696
600.0	 25.75192250612878	 129.46365701322645
600.0	 12.546193962184105	 127.38364501404116
600.0	 -6.229066793753226e-14	 127.0
600.0	 -12.64421110251288	 128.37882974071346
600.0	 -24.971561218064398	 125.5405158916135
600.0	 -38.607862074842984	 127.27306465238394
600.0	 -52.810313666382285	 127.49537548655762
600.0	 -64.5813529451611	 120.82321321572495
600.0	 -80.00211355482254	 119.73162417156664
600.0	 -97.06217247703796	 118.2705993644986
600.0	 -116.67261889578008	 116.6726188957806
600.0	 -142.23392341874373	 116.72836428611063
600.0	 -165.4624528482062	 110.55847637090132
600.0	 -179.0300166627161	 95.69353757567747
600.0	 -182.00426790472324	 75.38863617592334
600.0	 -181.81866378911968	 55.154088678347904
600.0	 -178.5029210333878	 35.5064386069361
600.0	 -176.14769662097885	 17.349033838332403
600.0	 -174.0	 8.525695774680905e-13
600.0	 -172.16695771429008	 -16.956965277013694
600.0	 -170.65663879016205	 -33.94571603080658
600.0	 -168.42149908886887	 -51.09010319678498
600.0	 -167.22219538454283	 -69.26570125808139
600.0	 -166.68311896183937	 -89.09398326011305
600.0	 -163.7995136236014	 -109.44733590486167
600.0	 -156.92112203263608	 -128.78183668521945
600.0	 -139.30003589374994	 -139.3000358937498
600.0	 -112.28761129696586	 -136.82285024520397
600.0	 -91.66908844823452	 -137.19248602991985
600.0	 -72.12370073437737	 -134.93395344529847
600.0	 -55.10641426057317	 -133.0386526816252
600.0	 -40.05928546111563	 -132.0577663310449
600.0	 -26.922464438226044	 -135.34836869564575
600.0	 -13.428348225149707	 -136.34030755409097
600.0	 -4.299345888866604e-13	 -135.0
600.0	 13.134296804161126	 -133.3547533740744
600.0	 26.337193472176804	 -132.40601285443623
600.0	 40.05928546111573	 -132.05776633104486
600.0	 51.662263369286556	 -124.72373688902395
600.0	 66.4669398924655	 -124.35089827311813
600.0	 83.33553495294056	 -124.72044184538163
600.0	 100.23413889785574	 -122.13565163131264
600.0	 123.74368670764596	 -123.74368670764567
600.0	 149.96402795237066	 -123.07229712774762
600.0	 170.45127052202184	 -113.89189776901836
600.0	 178.14809539836742	 -95.22214083885211
600.0	 181.0803883722122	 -75.00595274355761
600.0	 178.94784278192284	 -54.28323464658517
600.0	 177.5221357529847	 -35.31134828491936
600.0	 176.14769662097876	 -17.349033838333053
600.0	 174.0	 -2.5570625166196734e-13
700.0	 180.1284355276676	 17.74110239965078
700.0	 179.48370631379126	 35.70152892895109
700.0	 177.9909024461908	 53.9929499693302
700.0	 178.30874977467855	 73.85790244646182
700.0	 176.38425286967097	 94.27934736519961
700.0	 173.77714897123235	 116.11417870109625
700.0	 163.10520565953752	 133.85698295852916
700.0	 143.54267658086974	 143.54267658086854
700.0	 116.09397100194727	 141.46091296538074
700.0	 91.11351821521544	 136.36101641761698
700.0	 72.12370073437786	 134.93395344529822
700.0	 54.723730828207636	 132.1147731491141
700.0	 39.47871610660719	 130.14388565958032
700.0	 26.727374116209447	 134.3675834152426
700.0	 12.93826252350239	 131.36438392072995
700.0	 -3.241238094151979e-14	 132.0
700.0	 -12.64421110251285	 128.37882974071346
700.0	 -25.947012828145006	 130.44444229362966
700.0	 -39.769000783860776	 131.1008259953128
700.0	 -53.192997098747334	 128.4192550190689
700.0	 -66.93833662929103	 125.23281953746675
700.0	 -80.0021135548225	 119.73162417156666
700.0	 -95.79338590871063	 116.72457845777313
700.0	 -117.37972567696661	 117.37972567696717
700.0	 -139.14188160529275	 114.19079114945606
700.0	 -162.136574398996	 108.33619543882294
700.0	 -176.384252869671	 94.27934736519951
700.0	 -178.30874977467806	 73.857902446463
700.0	 -175.1200814389942	 53.12209593756672
700.0	 -172.6182093509684	 34.33589667483935
700.0	 -169.18140353427347	 16.662913856025515
700.0	 -165.0	 -3.235110185849754e-13
700.0	 -163.21029517424031	 -16.074811014047622
700.0	 -159.86800070572653	 -31.79972248862912
700.0	 -159.809036067279	 -48.47754110149479
700.0	 -157.98340005942998	 -65.43886693443045
700.0	 -156.10006378965912	 -83.43722241820107
700.0	 -155.48481750057596	 -103.8916335746656
700.0	 -149.96402795237145	 -123.07229712774664
700.0	 -137.88582233137686	 -137.88582233137666
700.0	 -116.09397100194778	 -141.46091296538032
700.0	 -93.33579914729337	 -139.68689486682746
700.0	 -71.6523039975514	 -134.05203218095008
700.0	 -55.10641426057321	 -133.03865268162517
700.0	 -39.769000783861195	 -131.10082599531265
700.0	 -26.92246443822608	 -135.34836869564572
700.0	 -13.13429680416106	 -133.3547533740744
700.0	 -4.527111624088914e-13	 -132.0
700.0	 12.74222824284285	 -129.3740144673856
700.0	 25.36174186209615	 -127.50208645242006
700.0	 38.898146752097844	 -128.23000498811604
700.0	 52.044946801651605	 -125.64761642153525
700.0	 64.10995620833549	 -119.9412919513764
700.0	 79.44654332180332	 -118.90015455926384
700.0	 93.89020605621928	 -114.40554709768529
700.0	 115.25840533340737	 -115.25840533340713
700.0	 137.59586069856684	 -112.92200458112929
700.0	 165.46245284820654	 -110.55847637090079
700.0	 185.2034655131542	 -98.99331473346017
700.0	 192.16694276234762	 -79.59815393193874
700.0	 194.25888815363814	 -58.927789482656685
700.0	 193.21470023943635	 -38.43279343717747
700.0	 189.0850980677173	 -18.623256662617447
700.0	 184.0	 -3.154690154603582e-13
800.0	 192.07065224773396	 18.917308083605484
800.0	 195.17627080024295	 38.822974081209054
800.0	 195.21582848937055	 59.218074159910486
800.0	 196.78634042490432	 81.51157109376352
800.0	 193.14075689228974	 103.23588536489352
800.0	 182.9233147065604	 122.22545126431181
800.0	 163.10520565953755	 133.85698295852913
800.0	 132.22896808188494	 132.2289680818838
800.0	 109.11564487614717	 132.95779797839063
800.0	 88.89123728313703	 133.0351379684068
800.0	 71.18090726072589	 133.1701109166015
800.0	 54.72373082820766	 132.1147731491141
800.0	 38.89814675209828	 128.2300049881159
800.0	 26.532283794193354	 133.38679813483935
800.0	 13.13429680416155	 133.35475337407433
800.0	 -8.294340530283993e-17	 134.0
800.0	 -13.134296804160602	 133.35475337407442
800.0	 -26.532283794193354	 133.38679813483935
800.0	 -40.93013949287858	 134.92858733824164
800.0	 -54.72373082820766	 132.1147731491141
800.0	 -67.40973336611701	 126.11474080181512
800.0	 -84.44667541897928	 126.38338106998704
800.0	 -102.77171203451071	 125.22769344476326
800.0	 -123.03657992645893	 123.03657992645961
800.0	 -147.6449965922828	 121.16911727525623
800.0	 -161.30510478669342	 107.78062520580339
800.0	 -164.9192764331424	 88.15118978646159
800.0	 -164.45055678700876	 68.11765096098664
800.0	 -158.85209573154663	 48.187256424240886
800.0	 -157.90643014491997	 31.409541844597396
800.0	 -159.22955626755146	 15.682742452729935
800.0	 -155.0	 8.354010010158372e-13
800.0	 -152.26326318084617	 -14.996622470422441
800.0	 -152.02171846250067	 -30.23899991250004
800.0	 -151.19657304568912	 -45.86497900620463
800.0	 -146.89684566929458	 -60.846665746049325
800.0	 -147.28085114617556	 -78.72325504994109
800.0	 -148.0015909898531	 -98.89150147748914
800.0	 -143.7799443254696	 -117.99715085443746
800.0	 -131.52186130069796	 -131.5218613006977
800.0	 -109.11564487614767	 -132.95779797839023
800.0	 -87.22452658407776	 -130.54072913149946
800.0	 -68.35252683976945	 -127.87858333051159
800.0	 -52.42763023401759	 -126.57149595404616
800.0	 -38.60786207484338	 -127.27306465238382
800.0	 -26.142103150161578	 -131.42522757403282
800.0	 -12.74222824284285	 -129.3740144673856
800.0	 -4.703436003940669e-13	 -128.0
800.0	 12.644211102513259	 -128.3788297407134
800.0	 25.36174186209612	 -127.50208645242007
800.0	 38.60786207484335	 -127.27306465238382
800.0	 51.66226336928649	 -124.72373688902397
800.0	 64.58135294516147	 -120.82321321572475
800.0	 81.1132540208621	 -121.39456339617149
800.0	 97.06217247703746	 -118.27059936449899
800.0	 118.08683245815352	 -118.08683245815335
800.0	 143.00693387210595	 -117.36275757027487
800.0	 175.44008819583703	 -117.22531916713606
800.0	 191.37691436359265	 -102.29309189124223
800.0	 196.78634042490404	 -81.51157109376425
800.0	 200.0005301680314	 -60.669497546183536
800.0	 196.15705608064604	 -39.018064403225914
800.0	 195.05620642775048	 -19.21135950459489
800.0	 193.0	 -3.781709315767027e-13
900.0	 203.01768424112814	 19.99549662723062
900.0	 201.06098248266235	 39.993516013305765
900.0	 202.87135117522826	 61.54035157794614
900.0	 199.55797902243822	 82.65962139085873
900.0	 199.31420574272823	 106.53566252267545
900.0	 193.73241966649357	 129.44786429356654
900.0	 175.4733729133414	 144.00727550514736
900.0	 144.9568901432429	 144.95689014324157
900.0	 113.55639786529274	 138.36887115192974
900.0	 92.7802289142743	 138.85542525452456
900.0	 74.00928768168191	 138.46163850269159
900.0	 55.87178112530295	 134.88641174664792
900.0	 40.6398548156251	 133.97164700250912
900.0	 27.897916048306286	 140.25229509766197
900.0	 13.526365365479839	 137.33549228076313
900.0	 3.3714832328617753e-14	 138.0
900.0	 -13.330331084819681	 135.34512282741883
900.0	 -26.727374116209447	 134.3675834152426
900.0	 -40.930139492878546	 134.92858733824164
900.0	 -52.81031366638219	 127.49537548655766
900.0	 -68.35252683976896	 127.87858333051186
900.0	 -83.89110518595966	 125.55191145768451
900.0	 -102.13731875034705	 124.45468299140055
900.0	 -123.03657992645891	 123.03657992645964
900.0	 -143.00693387210637	 117.36275757027437
900.0	 -152.99040866366795	 102.22492287560738
900.0	 -156.1000637896588	 83.43722241820166
900.0	 -152.44012286436202	 63.14276634024047
900.0	 -150.23963270995674	 45.57469432895076
900.0	 -148.09857734088766	 29.4586386244361
900.0	 -147.28733954748512	 14.506536768775225
900.0	 -151.0	 -2.2209293215775006e-13
900.0	 -147.28733954748517	 -14.506536768774613
900.0	 -147.11779206048456	 -29.26354830241936
900.0	 -145.45493103129587	 -44.12327094267783
900.0	 -136.73417081167042	 -56.6371479900333
900.0	 -134.93395344529858	 -72.12370073437712
900.0	 -133.86660758070983	 -89.44680751615589
900.0	 -131.41177707166577	 -107.84685830781915
900.0	 -125.15790027001906	 -125.15790027001876
900.0	 -111.01882472863866	 -135.27682933847842
900.0	 -88.8912372831366	 -133.03513796840707
900.0	 -68.3525268397695	 -127.87858333051156
900.0	 -53.19299709874781	 -128.41925501906871
900.0	 -38.60786207484342	 -127.27306465238381
900.0	 -25.75192250612935	 -129.46365701322634
900.0	 -12.742228242842883	 -129.3740144673856
900.0	 -4.97775069714331e-13	 -127.0
900.0	 12.448176821854108	 -126.38846028736901
900.0	 25.166651540079968	 -126.52130117201683
900.0	 37.73700804307994	 -124.4022436451872
900.0	 51.662263369286464	 -124.72373688902398
900.0	 62.22436926103145	 -116.413606893983
900.0	 77.22426238972484	 -115.57427611005369
900.0	 93.89020605621921	 -114.40554709768531
900.0	 113.13708498984766	 -113.13708498984755
900.0	 132.18478752502764	 -108.48125159198383
900.0	 159.64216556208868	 -106.66948473976366
900.0	 194.02267815663768	 -103.70728210172028
900.0	 208.79677434755072	 -86.48645571451047
900.0	 215.31157553974668	 -65.31405238225506
900.0	 214.79197640830742	 -42.724780521532416
900.0	 208.98879260116124	 -20.58359946920886
900.0	 207.0	 -4.563033973623038e-13
1000.0	 214.9599009611945	 21.171702311185307
1000.0	 210.86883528669466	 41.944419233466974
1000.0	 208.61299318962153	 63.28205964147286
1000.0	 208.7967743475511	 86.48645571450953
1000.0	 207.25149712186345	 110.77823315410939
1000.0	 200.38417656491396	 133.8924261577233
1000.0	 185.52250880705705	 152.25438819927473
1000.0	 158.3919189857874	 158.39191898578585
1000.0	 123.70669041191113	 150.7370384057335
1000.0	 98.33593124447042	 147.17012137754998
1000.0	 78.72325504994195	 147.2808511461751
1000.0	 58.933248584223705	 142.2774480067382
1000.0	 42.09127820189747	 138.75634868117015
1000.0	 27.507735404274065	 138.2907245368555
1000.0	 14.016451067127692	 142.3114159141241
1000.0	 6.849356346312941e-14	 140.0
1000.0	 -13.624382505808319	 138.3306770074354
1000.0	 -27.117554760241667	 136.32915397604907
1000.0	 -40.93013949287851	 134.92858733824167
1000.0	 -55.10641426057268	 133.0386526816254
1000.0	 -67.40973336611694	 126.11474080181516
1000.0	 -82.77996471992043	 123.88897223307944
1000.0	 -98.96535232952878	 120.58963072458688
1000.0	 -118.79393923933961	 118.79393923934036
1000.0	 -138.3688711519299	 113.55639786529254
1000.0	 -148.00159098985267	 98.89150147748975
1000.0	 -149.92661493922031	 80.1374452604197
1000.0	 -145.04908660427174	 60.081298881319746
1000.0	 -140.67022935263464	 42.67184755640615
1000.0	 -139.2715098172586	 27.70282572629094
1000.0	 -142.31141591412413	 14.01645106712745
1000.0	 -139.0	 8.172564210080856e-13
1000.0	 -139.3258617341076	 -13.722399646138113
1000.0	 -135.34836869564577	 -26.922464438225774
1000.0	 -133.01470666677716	 -40.34957013836983
1000.0	 -132.114773149114	 -54.72373082820782
1000.0	 -130.52434712355682	 -69.76671705024712
1000.0	 -123.05750262077676	 -82.22439448690102
1000.0	 -120.58963072458744	 -98.96535232952814
1000.0	 -117.37972567696707	 -117.37972567696671
1000.0	 -106.57807173949315	 -129.86575616493923
1000.0	 -90.00237774917586	 -134.69807719301213
1000.0	 -69.76671705024751	 -130.52434712355662
1000.0	 -52.81031366638275	 -127.49537548655742
1000.0	 -38.607862074843446	 -127.2730646523838
1000.0	 -25.751922506129382	 -129.46365701322634
1000.0	 -12.546193962183793	 -127.38364501404119
1000.0	 -5.288810984126738e-13	 -127.0
1000.0	 12.448176821854076	 -126.38846028736901
1000.0	 24.776470896047687	 -124.5597306112104
1000.0	 37.73700804307991	 -124.40224364518721
1000.0	 51.279579936921344	 -123.7998573565127
1000.0	 64.1099562083354	 -119.94129195137644
1000.0	 76.11312192368561	 -113.91133688544862
1000.0	 91.98702620372826	 -112.08651573759714
1000.0	 108.89444430272835	 -108.89444430272829
1000.0	 128.31973525821397	 -105.30928517116561
1000.0	 153.82187827597082	 -102.78049310862649
1000.0	 186.08538677750246	 -99.46471147028632
1000.0	 210.64453341257328	 -87.2518225792407
1000.0	 222.01015788987212	 -67.34604512303638
1000.0	 226.56139977314615	 -45.06586438572603
1000.0	 222.921378774572	 -21.955839433822838
1000.0	 217.0	 -5.314967108299514e-13
